ply
format ascii 1.0
comment VCGLIB generated
element camera 1
property float view_px
property float view_py
property float view_pz
property float x_axisx
property float x_axisy
property float x_axisz
property float y_axisx
property float y_axisy
property float y_axisz
property float z_axisx
property float z_axisy
property float z_axisz
property float focal
property float scalex
property float scaley
property float centerx
property float centery
property int viewportx
property int viewporty
property float k1
property float k2
property float k3
property float k4
element vertex 349
property float x
property float y
property float z
property float nx
property float ny
property float nz
property int flags
property uchar red
property uchar green
property uchar blue
property uchar alpha
property float quality
element face 0
property list uchar int vertex_indices
property int flags
end_header
-0 -0 -0 1 0 0 0 1 0 0 0 1 0 0 0 0 0 0 0 0 0 0 0
0.100178 0.175289 0.233719 0.767118 -0.441485 0.465426 0 255 255 255 255 1.4013e-044 
0.100459 0.146017 0.204424 0.763102 -0.594485 -0.253503 0 255 255 255 255 1.4013e-044 
0.109214 0.173061 0.201904 0.740649 -0.0896656 0.665882 0 255 255 255 255 1.4013e-044 
0.0841227 0.1195 0.17925 0.285767 -0.948204 0.138734 0 255 255 255 255 1.4013e-044 
0.113631 0.143309 0.171971 0.747148 -0.623187 -0.231101 0 255 255 255 255 1.4013e-044 
0.117093 0.171117 0.171117 0.974861 0.168473 -0.145815 0 255 255 255 255 1.4013e-044 
0.169157 0.105516 0.131895 0.517889 -0.265963 0.813053 0 255 255 255 255 1.4013e-044 
0.177422 0.130197 0.130197 0.382034 0.0905301 0.919704 0 255 255 255 255 1.4013e-044 
0.108848 0.173151 0.144292 0.943758 -0.261539 -0.202281 0 255 255 255 255 1.4013e-044 
0.150765 -0.135676 0.108541 0.956293 0.291379 0.0245515 0 255 255 255 255 1.4013e-044 
0.142507 -0.109899 0.109899 0.920903 0.324695 0.215665 0 255 255 255 255 1.4013e-044 
0.138009 -0.0829789 0.110639 0.99249 0.0430337 0.114506 0 255 255 255 255 1.4013e-044 
0.134933 -0.0555722 0.111144 0.946398 0.148357 0.286916 0 255 255 255 255 1.4013e-044 
0.133181 -0.0278581 0.111432 0.857529 -0.0320124 0.513438 0 255 255 255 255 1.4013e-044 
0.13495 0 0.111142 0.623576 -0.16135 0.764931 0 255 255 255 255 1.4013e-044 
0.172914 0.0262246 0.104899 0.509201 0.0731734 0.857531 0 255 255 255 255 1.4013e-044 
0.160424 0.0534762 0.106952 0.676221 -0.38149 0.630231 0 255 255 255 255 1.4013e-044 
0.203783 0.0748668 0.0998224 0.504482 -0.37281 0.778788 0 255 255 255 255 1.4013e-044 
0.222444 0.0967536 0.0967536 0.687894 -0.0584118 0.723457 0 255 255 255 255 1.4013e-044 
0.21583 0.122302 0.0978413 0.876745 0.357345 0.321904 0 255 255 255 255 1.4013e-044 
0.194187 0.1521 0.1014 0.754352 0.621596 0.21112 0 255 255 255 255 1.4013e-044 
0.221583 -0.121119 0.0726715 0.497984 -0.119461 0.858919 0 255 255 255 255 1.4013e-044 
0.155422 -0.107775 0.0808313 0.530433 0.0810152 0.843847 0 255 255 255 255 1.4013e-044 
0.212822 -0.0737519 0.0737519 0.288343 -0.119996 0.949978 0 255 255 255 255 1.4013e-044 
0.21449 -0.0490308 0.0735463 0.472478 -0.0037628 0.881335 0 255 255 255 255 1.4013e-044 
0.218302 -0.0243587 0.0730761 0.515205 0.00173726 0.857065 0 255 255 255 255 1.4013e-044 
0.210017 0 0.0740979 0.698275 0.513912 0.498304 0 255 255 255 255 1.4013e-044 
0.200305 0.0250986 0.0752957 0.79213 0.308062 0.526903 0 255 255 255 255 1.4013e-044 
0.22032 0.0485515 0.0728273 0.228757 -0.687245 0.689466 0 255 255 255 255 1.4013e-044 
0.243075 0.0700207 0.0700207 0.707612 0.123673 0.695694 0 255 255 255 255 1.4013e-044 
0.239145 0.0940072 0.0705054 0.769126 0.188187 0.610763 0 255 255 255 255 1.4013e-044 
0.225809 0.12025 0.0721502 0.806523 0.570548 0.154904 0 255 255 255 255 1.4013e-044 
0.194105 0.152121 0.0760603 0.564925 0.803771 -0.18658 0 255 255 255 255 1.4013e-044 
0.23984 -0.14084 0.0469465 0.719494 -0.618422 0.316042 0 255 255 255 255 1.4013e-044 
0.25298 -0.114665 0.0458661 0.661548 -0.40736 0.629612 0 255 255 255 255 1.4013e-044 
0.268258 -0.0892198 0.0446099 0.491963 -0.20049 0.847216 0 255 255 255 255 1.4013e-044 
0.269911 -0.0667109 0.0444739 0.686635 0.127483 0.715737 0 255 255 255 255 1.4013e-044 
0.261969 -0.045127 0.045127 0.769441 0.45063 0.452652 0 255 255 255 255 1.4013e-044 
0.242938 -0.0233459 0.0466918 0.699522 0.684727 0.204495 0 255 255 255 255 1.4013e-044 
0.22487 0 0.0481773 0.813096 0.476741 0.334056 0 255 255 255 255 1.4013e-044 
0.211184 0.0246513 0.0493027 0.845561 0.533724 -0.0128254 0 255 255 255 255 1.4013e-044 
0.248249 0.0462551 0.0462551 0.520098 -0.7778 0.352881 0 255 255 255 255 1.4013e-044 
0.262036 0.0676823 0.0451215 0.961305 0.262526 -0.0835015 0 255 255 255 255 1.4013e-044 
0.251286 0.0920108 0.0460054 0.831375 0.555694 0.00443644 0 255 255 255 255 1.4013e-044 
0.221299 0.121177 0.0484709 0.610542 0.75545 -0.237768 0 255 255 255 255 1.4013e-044 
0.107659 -0.202352 0.0289074 0.947057 -0.0527425 0.316703 0 255 255 255 255 1.4013e-044 
0.113758 -0.17194 0.0286566 0.928129 -0.37223 -0.00462194 0 255 255 255 255 1.4013e-044 
0.27722 -0.109683 0.0219365 0.696409 -0.314403 -0.645108 0 255 255 255 255 1.4013e-044 
0.27633 -0.0878923 0.0219731 0.695912 0.103048 -0.710695 0 255 255 255 255 1.4013e-044 
0.271258 -0.0665449 0.0221816 0.828144 0.188308 -0.527937 0 255 255 255 255 1.4013e-044 
0.259194 -0.0453552 0.0226776 0.626032 0.526937 -0.574823 0 255 255 255 255 1.4013e-044 
0.2398 -0.0234749 0.0234749 0.679911 0.710295 -0.182214 0 255 255 255 255 1.4013e-044 
0.226104 0 0.0240379 0.803435 0.523822 -0.283023 0 255 255 255 255 1.4013e-044 
0.216714 0.024424 0.024424 0.64256 -0.716946 -0.270377 0 255 255 255 255 1.4013e-044 
0.25031 0.0460856 0.0230428 0.802056 -0.596235 0.0347983 0 255 255 255 255 1.4013e-044 
0.258135 0.0681634 0.0227211 0.983187 0.0419073 0.177728 0 255 255 255 255 1.4013e-044 
0.248855 0.0924105 0.0231026 0.797678 0.492609 0.347917 0 255 255 255 255 1.4013e-044 
0.217361 0.121987 0.0243974 0.435238 0.892771 -0.116314 0 255 255 255 255 1.4013e-044 
0.100579 -0.204389 0 0.74853 -0.13003 -0.650227 0 255 255 255 255 1.4013e-044 
0.105486 -0.17398 0 0.843662 -0.368844 -0.390114 0 255 255 255 255 1.4013e-044 
0.264138 -0.112372 0 0.797105 -0.547127 -0.255491 0 255 255 255 255 1.4013e-044 
0.264002 -0.0899197 0 0.957263 0.270332 -0.102799 0 255 255 255 255 1.4013e-044 
0.257854 -0.0681981 0 0.931476 0.335799 -0.139966 0 255 255 255 255 1.4013e-044 
0.249869 -0.0461219 0 0.809359 0.500561 -0.307208 0 255 255 255 255 1.4013e-044 
0.237245 -0.0235799 0 0.848682 0.524118 -0.0709879 0 255 255 255 255 1.4013e-044 
0.222469 0 0 0.837659 0.540407 -0.0792869 0 255 255 255 255 1.4013e-044 
0.208325 0.0247689 0 0.885202 0.382386 -0.26495 0 255 255 255 255 1.4013e-044 
0.256603 0.0455682 0 0.872869 -0.263643 0.410599 0 255 255 255 255 1.4013e-044 
0.258882 0.0680712 0 0.958345 0.270952 -0.0903288 0 255 255 255 255 1.4013e-044 
0.225311 0.0962821 0 0.214274 0.689271 -0.692092 0 255 255 255 255 1.4013e-044 
0.389934 -0.121119 -0.0173027 0.629878 -0.178849 0.755822 0 255 255 255 255 1.4013e-044 
0.391675 -0.103387 -0.0172311 0.48898 0.261669 0.832123 0 255 255 255 255 1.4013e-044 
0.26031 -0.113159 -0.0226317 0.927556 -0.37312 0.0205066 0 255 255 255 255 1.4013e-044 
0.265382 -0.0896927 -0.0224232 0.770427 -0.0537607 0.635257 0 255 255 255 255 1.4013e-044 
0.25581 -0.0684501 -0.0228167 0.910264 0.41375 -0.0152035 0 255 255 255 255 1.4013e-044 
0.247394 -0.0463254 -0.0231627 0.841505 0.455032 -0.29123 0 255 255 255 255 1.4013e-044 
0.234863 -0.0236779 -0.0236779 0.799784 0.544645 -0.252403 0 255 255 255 255 1.4013e-044 
0.217915 0 -0.0243746 0.816543 0.530428 -0.227823 0 255 255 255 255 1.4013e-044 
0.271662 0.022165 -0.022165 0.338668 -0.439606 0.831896 0 255 255 255 255 1.4013e-044 
0.26778 0.0446492 -0.0223246 0.737166 0.439835 0.512964 0 255 255 255 255 1.4013e-044 
0.0359436 0.095567 -0.0318557 0.869317 0.142197 -0.473359 0 255 255 255 255 1.4013e-044 
0.408384 -0.11581 -0.0330884 0.816083 -0.204208 0.540654 0 255 255 255 255 1.4013e-044 
0.40852 -0.0992317 -0.0330772 0.773531 0.0170742 0.633528 0 255 255 255 255 1.4013e-044 
0.402274 -0.0839769 -0.0335908 0.192934 0.426481 0.88368 0 255 255 255 255 1.4013e-044 
0.345188 -0.0765691 -0.0382845 0.61257 -0.166875 0.7726 0 255 255 255 255 1.4013e-044 
0.341634 -0.0578651 -0.0385767 0.251985 0.457676 0.852664 0 255 255 255 255 1.4013e-044 
0.242467 -0.0467305 -0.0467305 0.817248 0.543531 -0.191519 0 255 255 255 255 1.4013e-044 
0.226638 -0.024016 -0.048032 0.720871 0.633732 -0.280588 0 255 255 255 255 1.4013e-044 
0.206291 0 -0.049705 0.614779 0.643693 -0.455748 0 255 255 255 255 1.4013e-044 
0.30945 0.0206115 -0.041223 0.206173 -0.258051 0.943876 0 255 255 255 255 1.4013e-044 
0.307043 0.0414209 -0.0414209 0.52199 0.488971 0.698881 0 255 255 255 255 1.4013e-044 
0.41289 -0.114513 -0.0490768 0.952418 -0.269041 0.14324 0 255 255 255 255 1.4013e-044 
0.417149 -0.0971033 -0.0485517 0.907664 -0.258907 0.330324 0 255 255 255 255 1.4013e-044 
0.419098 -0.0805187 -0.0483112 0.871623 -0.00563199 0.490145 0 255 255 255 255 1.4013e-044 
0.406546 -0.066479 -0.0498593 0.06898 0.710625 0.700181 0 255 255 255 255 1.4013e-044 
0.366409 -0.0548096 -0.0548096 0.533645 -0.0401969 0.844753 0 255 255 255 255 1.4013e-044 
0.356707 -0.0373374 -0.0560061 0.0770735 0.652087 0.754216 0 255 255 255 255 1.4013e-044 
0.209198 -0.024733 -0.0741989 0.476626 0.600766 -0.6418 0 255 255 255 255 1.4013e-044 
0.357006 0 -0.0559692 0.440099 -0.613494 0.655696 0 255 255 255 255 1.4013e-044 
0.357747 0.0186259 -0.0558778 0.391122 0.0661469 0.917959 0 255 255 255 255 1.4013e-044 
0.357747 0.0372519 -0.0558779 0.367817 0.103322 0.92414 0 255 255 255 255 1.4013e-044 
0.0186008 0.0977059 -0.0977059 0.64919 0.674255 0.35204 0 255 255 255 255 1.4013e-044 
0.417551 -0.113172 -0.0646695 0.877019 -0.19974 0.436968 0 255 255 255 255 1.4013e-044 
0.422064 -0.0958909 -0.0639273 0.885818 -0.392324 0.247808 0 255 255 255 255 1.4013e-044 
0.426503 -0.0789966 -0.0631973 0.886754 -0.167441 0.430848 0 255 255 255 255 1.4013e-044 
0.427693 -0.0630016 -0.0630016 0.757591 0.202657 0.620472 0 255 255 255 255 1.4013e-044 
0.412783 -0.0490901 -0.0654535 0.141394 0.567774 0.81095 0 255 255 255 255 1.4013e-044 
0.38914 -0.0346707 -0.0693415 0.29886 0.385039 0.873171 0 255 255 255 255 1.4013e-044 
0.366608 -0.0182617 -0.0730466 0.165377 0.678202 0.716025 0 255 255 255 255 1.4013e-044 
0.376943 0 -0.0713472 0.643081 -0.344589 0.68389 0 255 255 255 255 1.4013e-044 
0.384965 0.017507 -0.070028 0.504119 -0.269563 0.820488 0 255 255 255 255 1.4013e-044 
0.392986 0.0343544 -0.0687089 0.426532 -0.249488 0.869383 0 255 255 255 255 1.4013e-044 
0.375725 0.0536605 -0.0715474 0.191655 0.785291 0.588716 0 255 255 255 255 1.4013e-044 
0.42518 -0.110976 -0.0792685 0.91391 -0.145729 0.378856 0 255 255 255 255 1.4013e-044 
0.427711 -0.094498 -0.0787483 0.876614 -0.136524 0.46142 0 255 255 255 255 1.4013e-044 
0.431767 -0.0779145 -0.0779145 0.895055 -0.418125 0.155075 0 255 255 255 255 1.4013e-044 
0.435943 -0.061645 -0.0770562 0.957924 -0.0660442 0.27932 0 255 255 255 255 1.4013e-044 
0.434586 -0.0464011 -0.0773352 0.65066 0.330654 0.683601 0 255 255 255 255 1.4013e-044 
0.424085 -0.0317974 -0.0794936 0.303313 0.455418 0.837016 0 255 255 255 255 1.4013e-044 
0.400694 -0.0168604 -0.0843018 0.436534 0.425232 0.792853 0 255 255 255 255 1.4013e-044 
0.392754 0 -0.0859338 0.624547 -0.625806 0.467233 0 255 255 255 255 1.4013e-044 
0.404526 0.0167028 -0.0835142 0.513058 -0.398949 0.760007 0 255 255 255 255 1.4013e-044 
0.41424 0.032607 -0.0815174 0.555294 -0.338348 0.759717 0 255 255 255 255 1.4013e-044 
0.41067 0.0493507 -0.0822511 0.418356 0.475441 0.773908 0 255 255 255 255 1.4013e-044 
0.434523 -0.108287 -0.0928176 0.692489 0.217284 0.687929 0 255 255 255 255 1.4013e-044 
0.43422 -0.0928925 -0.0928925 0.917999 -0.177327 0.354729 0 255 255 255 255 1.4013e-044 
0.436981 -0.0768427 -0.0922113 0.917963 -0.151556 0.366571 0 255 255 255 255 1.4013e-044 
0.440431 -0.0609068 -0.0913603 0.927471 -0.308348 0.211468 0 255 255 255 255 1.4013e-044 
0.442709 -0.0453992 -0.0907985 0.966341 0.0433421 0.253587 0 255 255 255 255 1.4013e-044 
0.441455 -0.0303693 -0.0911079 0.715112 0.355711 0.601734 0 255 255 255 255 1.4013e-044 
0.433073 -0.0155292 -0.0931752 0.328704 0.528762 0.782537 0 255 255 255 255 1.4013e-044 
0.413519 0 -0.0979988 0.364445 0.277401 0.888948 0 255 255 255 255 1.4013e-044 
0.420587 0.0160425 -0.0962553 0.592229 -0.257175 0.763627 0 255 255 255 255 1.4013e-044 
0.426988 0.0315587 -0.0946762 0.668378 -0.438511 0.600815 0 255 255 255 255 1.4013e-044 
0.431953 0.0467258 -0.0934516 0.549555 0.32298 0.770502 0 255 255 255 255 1.4013e-044 
0.4201 0.0642503 -0.0963754 0.342793 0.362196 0.86678 0 255 255 255 255 1.4013e-044 
0.44505 -0.105258 -0.105258 0.682054 0.361544 0.635679 0 255 255 255 255 1.4013e-044 
0.441687 -0.0910505 -0.106226 0.778702 0.172341 0.60326 0 255 255 255 255 1.4013e-044 
0.441956 -0.0758201 -0.106148 0.874706 -0.128301 0.467363 0 255 255 255 255 1.4013e-044 
0.445392 -0.060091 -0.105159 0.938037 -0.217939 0.269425 0 255 255 255 255 1.4013e-044 
0.447846 -0.0447656 -0.104453 0.936734 0.0454126 0.347084 0 255 255 255 255 1.4013e-044 
0.447442 -0.029877 -0.104569 0.977214 0.00453915 0.212206 0 255 255 255 255 1.4013e-044 
0.446943 -0.014959 -0.104713 0.852076 0.175901 0.492975 0 255 255 255 255 1.4013e-044 
0.439226 0 -0.106934 0.312472 0.505805 0.804066 0 255 255 255 255 1.4013e-044 
0.436313 0.015396 -0.107772 0.394592 -0.439996 0.80666 0 255 255 255 255 1.4013e-044 
0.43898 0.0305728 -0.107005 0.655935 -0.153932 0.738955 0 255 255 255 255 1.4013e-044 
0.445444 0.045062 -0.105145 0.732776 -0.303677 0.60895 0 255 255 255 255 1.4013e-044 
0.441735 0.0606925 -0.106212 0.508926 0.349351 0.786732 0 255 255 255 255 1.4013e-044 
0.431069 0.078058 -0.109281 0.300971 0.605964 0.736358 0 255 255 255 255 1.4013e-044 
-0.481912 -0.0676071 0.108171 -0.642411 0.746295 -0.174222 0 255 255 255 255 1.4013e-044 
-0.489588 -0.0792351 0.105647 -0.845686 0.47157 -0.249874 0 255 255 255 255 1.4013e-044 
-0.455084 -0.0292487 0.10237 -0.611503 0.258119 0.747956 0 255 255 255 255 1.4013e-044 
-0.462216 -0.0429933 0.100318 -0.914704 0.113951 0.387727 0 255 255 255 255 1.4013e-044 
-0.468533 -0.0562857 0.0984999 -0.799431 0.55714 -0.224732 0 255 255 255 255 1.4013e-044 
-0.477763 -0.0684599 0.0958439 -0.60653 0.722129 -0.332643 0 255 255 255 255 1.4013e-044 
-0.485715 -0.0801903 0.0935554 -0.772352 0.580867 -0.257035 0 255 255 255 255 1.4013e-044 
-0.0504137 0.187565 0.187565 -0.734341 -0.120002 -0.668089 0 255 255 255 255 1.4013e-044 
-0.385342 0.0524745 0.104949 -0.354343 0.232707 0.905698 0 255 255 255 255 1.4013e-044 
-0.400162 0.0337644 0.101293 -0.466568 0.174479 0.867105 0 255 255 255 255 1.4013e-044 
-0.437343 0.0153537 0.092122 -0.663431 0.421126 0.618476 0 255 255 255 255 1.4013e-044 
-0.44771 0 0.089565 -0.954267 0.282659 0.0973576 0 255 255 255 255 1.4013e-044 
-0.453968 -0.0146702 0.0880213 -0.936861 0.349285 0.0170564 0 255 255 255 255 1.4013e-044 
-0.458177 -0.0289943 0.0869829 -0.980967 0.172865 -0.0884368 0 255 255 255 255 1.4013e-044 
-0.462399 -0.0429708 0.0859415 -0.949672 0.313035 -0.0114618 0 255 255 255 255 1.4013e-044 
-0.467693 -0.0564237 0.0846356 -0.898502 0.434207 0.0644835 0 255 255 255 255 1.4013e-044 
-0.474563 -0.0691176 0.0829411 -0.839164 0.533905 -0.103679 0 255 255 255 255 1.4013e-044 
-0.483578 -0.0807174 0.0807174 -0.749556 0.605222 -0.26809 0 255 255 255 255 1.4013e-044 
-0.391679 0.120617 0.0861548 -0.934956 -0.179822 0.305814 0 255 255 255 255 1.4013e-044 
-0.394369 0.102722 0.0856019 -0.568318 0.375688 0.732034 0 255 255 255 255 1.4013e-044 
-0.409975 0.082394 0.082394 -0.577532 0.361738 0.731849 0 255 255 255 255 1.4013e-044 
-0.42275 0.0638145 0.0797681 -0.691522 0.43272 0.578403 0 255 255 255 255 1.4013e-044 
-0.430632 0.0468887 0.0781478 -0.767851 0.455225 0.450749 0 255 255 255 255 1.4013e-044 
-0.43845 0.0306164 0.0765409 -0.808755 0.461076 0.365135 0 255 255 255 255 1.4013e-044 
-0.445452 0.0150203 0.0751015 -0.925135 0.320084 0.204138 0 255 255 255 255 1.4013e-044 
-0.450533 0 0.0740571 -0.975251 0.214799 0.0524005 0 255 255 255 255 1.4013e-044 
-0.454163 -0.0146622 0.073311 -0.982009 0.188406 0.0127422 0 255 255 255 255 1.4013e-044 
-0.45805 -0.0290048 0.072512 -0.940827 0.319129 -0.114022 0 255 255 255 255 1.4013e-044 
-0.462794 -0.042922 0.0715367 -0.955705 0.291255 -0.0424012 0 255 255 255 255 1.4013e-044 
-0.468397 -0.056308 0.070385 -0.974073 0.22597 -0.0109632 0 255 255 255 255 1.4013e-044 
-0.472893 -0.069461 0.069461 -0.942454 0.333957 -0.0159257 0 255 255 255 255 1.4013e-044 
-0.480132 -0.0815674 0.0679728 -0.704789 0.587607 -0.397481 0 255 255 255 255 1.4013e-044 
-0.417056 0.113314 0.0647508 -0.73701 0.247081 0.6291 0 255 255 255 255 1.4013e-044 
-0.419043 0.0966361 0.0644241 -0.74672 0.465473 0.475126 0 255 255 255 255 1.4013e-044 
-0.426124 0.0790744 0.0632595 -0.865449 0.236122 0.441864 0 255 255 255 255 1.4013e-044 
-0.43191 0.0623081 0.0623081 -0.938753 0.200473 0.280273 0 255 255 255 255 1.4013e-044 
-0.43683 0.0461244 0.0614991 -0.944512 0.271729 0.184555 0 255 255 255 255 1.4013e-044 
-0.442798 0.0302589 0.0605177 -0.863096 0.503604 0.038064 0 255 255 255 255 1.4013e-044 
-0.447291 0.0149447 0.0597788 -0.945741 0.307458 0.105091 0 255 255 255 255 1.4013e-044 
-0.451367 0 0.0591085 -0.938336 0.299403 0.172866 0 255 255 255 255 1.4013e-044 
-0.454684 -0.0146408 0.058563 -0.956245 0.284307 0.0690255 0 255 255 255 255 1.4013e-044 
-0.458513 -0.0289667 0.0579334 -0.978629 0.188397 0.0824102 0 255 255 255 255 1.4013e-044 
-0.462195 -0.0429959 0.0573279 -0.952843 0.296273 0.065664 0 255 255 255 255 1.4013e-044 
-0.467176 -0.0565089 0.0565089 -0.886429 0.452599 -0.0969426 0 255 255 255 255 1.4013e-044 
-0.472915 -0.0694565 0.0555652 -0.910419 0.40525 -0.0831299 0 255 255 255 255 1.4013e-044 
-0.47617 -0.0825448 0.0550299 -0.962953 0.252453 0.0948115 0 255 255 255 255 1.4013e-044 
-0.423307 0.111515 0.0477921 -0.875817 0.223698 0.427673 0 255 255 255 255 1.4013e-044 
-0.429922 0.0939526 0.0469763 -0.873267 0.296341 0.386765 0 255 255 255 255 1.4013e-044 
-0.434641 0.0773237 0.0463942 -0.954404 0.197824 0.223558 0 255 255 255 255 1.4013e-044 
-0.438436 0.0612349 0.0459262 -0.903182 0.23057 0.362077 0 255 255 255 255 1.4013e-044 
-0.441514 0.0455466 0.0455466 -0.880707 0.250163 0.402211 0 255 255 255 255 1.4013e-044 
-0.444822 0.0300924 0.0451386 -0.956806 0.230759 0.176839 0 255 255 255 255 1.4013e-044 
-0.448901 0.0148785 0.0446355 -0.957031 0.231782 0.174268 0 255 255 255 255 1.4013e-044 
-0.45278 0 0.0441571 -0.947346 0.27652 0.161469 0 255 255 255 255 1.4013e-044 
-0.455764 -0.0145964 0.0437891 -0.983157 0.175173 0.0521146 0 255 255 255 255 1.4013e-044 
-0.458331 -0.0289817 0.0434726 -0.960397 0.243659 -0.135159 0 255 255 255 255 1.4013e-044 
-0.461165 -0.043123 0.043123 -0.961699 0.205585 -0.1813 0 255 255 255 255 1.4013e-044 
-0.463469 -0.0571184 0.0428388 -0.904178 0.222832 -0.364427 0 255 255 255 255 1.4013e-044 
-0.467041 -0.0706637 0.0423982 -0.699153 0.460367 -0.547035 0 255 255 255 255 1.4013e-044 
-0.472387 -0.0834779 0.041739 -0.837728 0.283265 -0.466875 0 255 255 255 255 1.4013e-044 
-0.429795 0.109648 0.0313279 -0.943848 0.232249 0.234971 0 255 255 255 255 1.4013e-044 
-0.433912 0.0929683 0.0309894 -0.986134 0.125254 0.108863 0 255 255 255 255 1.4013e-044 
-0.437227 0.0767923 0.0307169 -0.968851 0.219751 0.114179 0 255 255 255 255 1.4013e-044 
-0.441007 0.0608122 0.0304061 -0.944848 0.30346 0.123182 0 255 255 255 255 1.4013e-044 
-0.444634 0.0451618 0.0301079 -0.937931 0.322867 0.126656 0 255 255 255 255 1.4013e-044 
-0.44795 0.0298352 0.0298352 -0.962167 0.262322 0.0736357 0 255 255 255 255 1.4013e-044 
-0.45089 0.0147967 0.0295935 -0.982952 0.159207 0.0919739 0 255 255 255 255 1.4013e-044 
-0.452845 0 0.0294327 -0.998866 0.00239525 0.0475585 0 255 255 255 255 1.4013e-044 
-0.454354 -0.0146543 0.0293086 -0.979465 0.0234505 -0.200244 0 255 255 255 255 1.4013e-044 
-0.455941 -0.0291781 0.0291781 -0.992165 0.12398 -0.0153876 0 255 255 255 255 1.4013e-044 
-0.456318 -0.0437208 0.0291472 -0.857878 0.0189037 -0.513505 0 255 255 255 255 1.4013e-044 
-0.457074 -0.05817 0.029085 -0.883152 -0.00336726 -0.469074 0 255 255 255 255 1.4013e-044 
-0.456798 -0.0727692 0.0291077 -0.926946 -0.0117089 -0.375012 0 255 255 255 255 1.4013e-044 
-0.460678 -0.0863662 0.0287887 -0.675139 0.150858 -0.7221 0 255 255 255 255 1.4013e-044 
-0.431522 0.109151 0.015593 -0.972586 0.139223 0.186262 0 255 255 255 255 1.4013e-044 
-0.435113 0.092672 0.0154453 -0.968455 0.170852 0.181396 0 255 255 255 255 1.4013e-044 
-0.43856 0.0765181 0.0153036 -0.94827 0.289358 0.130599 0 255 255 255 255 1.4013e-044 
-0.442048 0.0606409 0.0151602 -0.973355 0.0749123 0.216723 0 255 255 255 255 1.4013e-044 
-0.445576 0.0450457 0.0150152 -0.978884 0.193267 0.0665882 0 255 255 255 255 1.4013e-044 
-0.447334 0.0298859 0.014943 -0.983721 0.14901 -0.100439 0 255 255 255 255 1.4013e-044 
-0.449419 0.0148572 0.0148572 -0.990065 0.116225 -0.0791373 0 255 255 255 255 1.4013e-044 
-0.450969 0 0.0147935 -0.980869 0.110773 -0.16008 0 255 255 255 255 1.4013e-044 
-0.451532 -0.0147703 0.0147703 -0.969172 -0.0813041 -0.232585 0 255 255 255 255 1.4013e-044 
-0.450994 -0.0295849 0.0147925 -0.955616 -0.196295 -0.219697 0 255 255 255 255 1.4013e-044 
-0.451085 -0.0443662 0.0147887 -0.90258 -0.0688809 -0.424977 0 255 255 255 255 1.4013e-044 
-0.451467 -0.0590921 0.014773 -0.973648 0.0705901 -0.216854 0 255 255 255 255 1.4013e-044 
-0.451969 -0.0737619 0.0147524 -0.981158 0.0291945 -0.190989 0 255 255 255 255 1.4013e-044 
-0.451795 -0.0885571 0.0147595 -0.956653 -0.2695 0.110388 0 255 255 255 255 1.4013e-044 
-0.436287 0.10778 0 -0.997863 -0.00266501 -0.0652853 0 255 255 255 255 1.4013e-044 
-0.438989 0.091716 0 -0.930747 0.0954973 -0.352973 0 255 255 255 255 1.4013e-044 
-0.439889 0.076245 0 -0.96196 0.111034 -0.249609 0 255 255 255 255 1.4013e-044 
-0.441942 0.0606584 0 -0.980363 0.139548 -0.139336 0 255 255 255 255 1.4013e-044 
-0.444212 0.0452138 0 -0.966316 0.151807 -0.207815 0 255 255 255 255 1.4013e-044 
-0.445989 0.0299965 0 -0.975026 0.11262 -0.191419 0 255 255 255 255 1.4013e-044 
-0.446802 0.0149648 0 -0.97949 0.128778 -0.154968 0 255 255 255 255 1.4013e-044 
-0.448698 0 0 -0.972583 0.0983644 -0.210727 0 255 255 255 255 1.4013e-044 
-0.449328 -0.014861 0 -0.982953 0.15813 -0.0937935 0 255 255 255 255 1.4013e-044 
-0.448185 -0.0298159 0 -0.991029 0.126776 -0.0423086 0 255 255 255 255 1.4013e-044 
-0.447925 -0.0447559 0 -0.961271 -0.149199 -0.231729 0 255 255 255 255 1.4013e-044 
-0.448101 -0.0596456 0 -0.991524 -0.000389822 -0.129924 0 255 255 255 255 1.4013e-044 
-0.449496 -0.0742703 0 -0.978973 0.0508722 -0.197544 0 255 255 255 255 1.4013e-044 
-0.450032 -0.088992 0 -0.965968 -0.207429 -0.15453 0 255 255 255 255 1.4013e-044 
-0.43456 0.108277 -0.0154681 -0.988361 -0.0635884 0.138199 0 255 255 255 255 1.4013e-044 
-0.431614 0.0935351 -0.0155892 -0.919381 -0.323957 0.223137 0 255 255 255 255 1.4013e-044 
-0.431522 0.077965 -0.015593 -0.974326 -0.0293009 -0.223227 0 255 255 255 255 1.4013e-044 
-0.433858 0.0619878 -0.015497 -0.854781 0.102483 -0.508769 0 255 255 255 255 1.4013e-044 
-0.43717 0.0460823 -0.0153608 -0.815059 0.230201 -0.531683 0 255 255 255 255 1.4013e-044 
-0.440271 0.0304666 -0.0152333 -0.770128 0.197443 -0.606563 0 255 255 255 255 1.4013e-044 
-0.442439 0.0151442 -0.0151442 -0.929541 0.0896229 -0.357662 0 255 255 255 255 1.4013e-044 
-0.444469 0 -0.0150607 -0.910723 0.213845 -0.353348 0 255 255 255 255 1.4013e-044 
-0.446767 -0.0149663 -0.0149663 -0.979615 -0.00712566 -0.20076 0 255 255 255 255 1.4013e-044 
-0.447811 -0.0298467 -0.0149233 -0.954551 -0.0352243 -0.295959 0 255 255 255 255 1.4013e-044 
-0.446729 -0.0449034 -0.0149678 -0.93213 -0.16024 -0.324741 0 255 255 255 255 1.4013e-044 
-0.446754 -0.0598671 -0.0149668 -0.990124 0.0999205 -0.098333 0 255 255 255 255 1.4013e-044 
-0.448463 -0.0744826 -0.0148965 -0.972165 0.232501 -0.0289584 0 255 255 255 255 1.4013e-044 
-0.449316 -0.0891688 -0.0148615 -0.99142 0.129174 0.0199948 0 255 255 255 255 1.4013e-044 
-0.437215 0.107513 -0.0307179 -0.99841 -0.0545097 0.0143538 0 255 255 255 255 1.4013e-044 
-0.434768 0.0927573 -0.0309191 -0.980682 -0.165297 0.104592 0 255 255 255 255 1.4013e-044 
-0.430267 0.078223 -0.0312892 -0.866908 -0.427081 0.257045 0 255 255 255 255 1.4013e-044 
-0.425969 0.0632851 -0.0316425 -0.895143 0.00554882 -0.445745 0 255 255 255 255 1.4013e-044 
-0.427361 0.0472921 -0.0315281 -0.83726 0.039677 -0.545364 0 255 255 255 255 1.4013e-044 
-0.428389 0.0314436 -0.0314436 -0.852915 0.0273767 -0.521331 0 255 255 255 255 1.4013e-044 
-0.430506 0.0156348 -0.0312695 -0.765316 0.232982 -0.600009 0 255 255 255 255 1.4013e-044 
-0.435866 0 -0.0308288 -0.777201 0.135479 -0.614495 0 255 255 255 255 1.4013e-044 
-0.43989 -0.0152489 -0.0304979 -0.870942 0.0645418 -0.487129 0 255 255 255 255 1.4013e-044 
-0.441086 -0.0303996 -0.0303996 -0.920548 -0.0111821 -0.390469 0 255 255 255 255 1.4013e-044 
-0.441929 -0.0454954 -0.0303303 -0.910619 -0.0945415 -0.402286 0 255 255 255 255 1.4013e-044 
-0.442483 -0.0605695 -0.0302847 -0.934747 0.0759266 -0.347107 0 255 255 255 255 1.4013e-044 
-0.444269 -0.0753447 -0.0301379 -0.934037 0.0251923 -0.356287 0 255 255 255 255 1.4013e-044 
-0.446065 -0.0899706 -0.0299902 -0.965989 0.131076 -0.222899 0 255 255 255 255 1.4013e-044 
-0.434638 0.108254 -0.0463946 -0.925032 -0.020795 -0.37932 0 255 255 255 255 1.4013e-044 
-0.433866 0.0929797 -0.0464899 -0.94408 -0.11736 -0.308123 0 255 255 255 255 1.4013e-044 
-0.429794 0.07832 -0.046992 -0.910828 -0.391343 -0.131317 0 255 255 255 255 1.4013e-044 
-0.423992 0.0636102 -0.0477077 -0.911988 -0.401871 -0.0823221 0 255 255 255 255 1.4013e-044 
-0.415093 0.0488052 -0.0488052 -0.955803 -0.217728 -0.197572 0 255 255 255 255 1.4013e-044 
-0.415348 0.0325158 -0.0487738 -0.790632 0.074503 -0.607742 0 255 255 255 255 1.4013e-044 
-0.418315 0.016136 -0.0484079 -0.863465 0.107742 -0.492767 0 255 255 255 255 1.4013e-044 
-0.420874 0 -0.0480922 -0.741827 0.144013 -0.654944 0 255 255 255 255 1.4013e-044 
-0.425363 -0.0158462 -0.0475385 -0.816601 0.200079 -0.541416 0 255 255 255 255 1.4013e-044 
-0.430904 -0.0312368 -0.0468552 -0.739416 0.186446 -0.646917 0 255 255 255 255 1.4013e-044 
-0.434129 -0.0464574 -0.0464574 -0.818996 0.22065 -0.529678 0 255 255 255 255 1.4013e-044 
-0.436829 -0.0614993 -0.0461244 -0.795791 0.198646 -0.572064 0 255 255 255 255 1.4013e-044 
-0.43982 -0.0762592 -0.0457555 -0.878606 0.179947 -0.442346 0 255 255 255 255 1.4013e-044 
-0.441749 -0.0910352 -0.0455176 -0.762228 0.160157 -0.627182 0 255 255 255 255 1.4013e-044 
-0.424098 0.111287 -0.0635928 -0.680394 0.137981 -0.719739 0 255 255 255 255 1.4013e-044 
-0.425389 0.0950708 -0.0633805 -0.784168 -0.0251154 -0.62004 0 255 255 255 255 1.4013e-044 
-0.42284 0.0797496 -0.0637997 -0.861826 -0.196787 -0.467472 0 255 255 255 255 1.4013e-044 
-0.416948 0.0647685 -0.0647685 -0.986419 -0.0179576 -0.163263 0 255 255 255 255 1.4013e-044 
-0.410736 0.0493426 -0.0657901 -0.718954 -0.441497 -0.536829 0 255 255 255 255 1.4013e-044 
-0.401702 0.0336378 -0.0672757 -0.786585 -0.469188 -0.40143 0 255 255 255 255 1.4013e-044 
-0.394693 0.0171071 -0.0684283 -0.454712 0.176167 -0.873042 0 255 255 255 255 1.4013e-044 
-0.40938 0 -0.0660131 -0.70647 0.352369 -0.613789 0 255 255 255 255 1.4013e-044 
-0.4148 -0.0162804 -0.0651217 -0.918701 0.146653 -0.366718 0 255 255 255 255 1.4013e-044 
-0.418788 -0.032233 -0.064466 -0.866038 0.241085 -0.438013 0 255 255 255 255 1.4013e-044 
-0.422351 -0.04791 -0.06388 -0.904937 0.150728 -0.397957 0 255 255 255 255 1.4013e-044 
-0.42584 -0.0633064 -0.0633064 -0.871218 0.199415 -0.448568 0 255 255 255 255 1.4013e-044 
-0.431221 -0.0780269 -0.0624215 -0.82891 0.19424 -0.524576 0 255 255 255 255 1.4013e-044 
-0.433838 -0.0929867 -0.0619912 -0.898232 0.15303 -0.412021 0 255 255 255 255 1.4013e-044 
-0.158756 0.187647 -0.134033 -0.777197 0.108332 0.619862 0 255 255 255 255 1.4013e-044 
-0.150413 0.162898 -0.135748 -0.410589 -0.684927 0.601907 0 255 255 255 255 1.4013e-044 
-0.405498 0.0833142 -0.0833142 -0.646709 -0.155621 -0.746692 0 255 255 255 255 1.4013e-044 
-0.39946 0.0676443 -0.0845554 -0.63099 -0.192644 -0.751492 0 255 255 255 255 1.4013e-044 
-0.389257 0.0519916 -0.0866527 -0.429691 -0.210907 -0.878 0 255 255 255 255 1.4013e-044 
-0.384439 0.0350573 -0.0876432 -0.661895 -0.19924 -0.722633 0 255 255 255 255 1.4013e-044 
-0.368496 0.0181841 -0.0909204 -0.431988 -0.543824 -0.719473 0 255 255 255 255 1.4013e-044 
-0.339305 0 -0.0969206 -0.412795 -0.584909 -0.698199 0 255 255 255 255 1.4013e-044 
-0.294356 -0.021232 -0.10616 -0.459563 -0.549144 -0.698028 0 255 255 255 255 1.4013e-044 
-0.409688 -0.0329812 -0.082453 -0.834384 0.218773 -0.505907 0 255 255 255 255 1.4013e-044 
-0.415145 -0.0487988 -0.0813314 -0.878897 0.250723 -0.405806 0 255 255 255 255 1.4013e-044 
-0.417982 -0.0645985 -0.0807481 -0.957952 0.123968 -0.258767 0 255 255 255 255 1.4013e-044 
-0.421949 -0.0799326 -0.0799326 -0.870444 0.191445 -0.453515 0 255 255 255 255 1.4013e-044 
-0.424936 -0.0951826 -0.0793188 -0.848451 0.0453369 -0.527329 0 255 255 255 255 1.4013e-044 
-0.166093 0.185536 -0.15903 -0.999939 -0.0108755 0.0019543 0 255 255 255 255 1.4013e-044 
-0.156151 0.161483 -0.161483 -0.677003 -0.664841 -0.31568 0 255 255 255 255 1.4013e-044 
-0.162178 0.13333 -0.159996 -0.533485 0.696032 0.480556 0 255 255 255 255 1.4013e-044 
-0.185124 0.102891 -0.154336 -0.733526 0.527702 0.428334 0 255 255 255 255 1.4013e-044 
-0.212193 0.0738296 -0.147659 -0.026158 0.446522 0.89439 0 255 255 255 255 1.4013e-044 
-0.265626 0.0448263 -0.134479 -0.565129 0.795337 0.219244 0 255 255 255 255 1.4013e-044 
-0.281718 0.0217516 -0.13051 -0.902145 0.207882 -0.378047 0 255 255 255 255 1.4013e-044 
-0.281459 0 -0.130574 -0.789598 -0.279903 -0.546067 0 255 255 255 255 1.4013e-044 
-0.206727 -0.0248345 -0.149007 -0.920592 0.379922 0.0903879 0 255 255 255 255 1.4013e-044 
-0.214795 -0.0490057 -0.147017 -0.964383 0.207679 -0.163812 0 255 255 255 255 1.4013e-044 
-0.222313 -0.0725815 -0.145163 -0.91036 0.266835 -0.316296 0 255 255 255 255 1.4013e-044 
-0.407536 -0.0663163 -0.0994744 -0.782883 0.271394 -0.559856 0 255 255 255 255 1.4013e-044 
-0.412561 -0.0818624 -0.0982349 -0.888935 0.130623 -0.439012 0 255 255 255 255 1.4013e-044 
-0.41585 -0.0974237 -0.0974237 -0.998436 0.00946816 -0.0551006 0 255 255 255 255 1.4013e-044 
-0.16044 0.187162 -0.187162 -0.648969 -0.591832 -0.478093 0 255 255 255 255 1.4013e-044 
-0.146108 0.16396 -0.191287 -0.909418 -0.183302 -0.373309 0 255 255 255 255 1.4013e-044 
-0.186198 0.128393 -0.17975 -0.535398 0.739311 0.408372 0 255 255 255 255 1.4013e-044 
-0.21855 0.097394 -0.170439 -0.590469 0.640975 0.490405 0 255 255 255 255 1.4013e-044 
-0.244956 0.0697888 -0.162841 -0.714659 0.596539 0.365245 0 255 255 255 255 1.4013e-044 
-0.267231 0.0446943 -0.15643 -0.937888 0.295271 -0.182155 0 255 255 255 255 1.4013e-044 
-0.270428 0.0222158 -0.15551 -0.842613 -0.0795787 -0.532607 0 255 255 255 255 1.4013e-044 
-0.200699 0 -0.175577 -0.866376 0.465576 -0.180639 0 255 255 255 255 1.4013e-044 
-0.204341 -0.0249326 -0.174529 -0.995234 0.0375939 -0.0899832 0 255 255 255 255 1.4013e-044 
-0.203921 -0.0498998 -0.174649 -0.912809 -0.0152234 -0.408103 0 255 255 255 255 1.4013e-044 
-0.206705 -0.0745064 -0.173848 -0.60525 0.0945161 -0.790404 0 255 255 255 255 1.4013e-044 
-0.211463 -0.0985594 -0.172479 -0.624285 0.0775088 -0.777342 0 255 255 255 255 1.4013e-044 
-0.396925 -0.0850765 -0.119107 -0.1846 0.543455 -0.818889 0 255 255 255 255 1.4013e-044 
-0.406206 -0.0998025 -0.116436 -0.834121 0.109126 -0.540678 0 255 255 255 255 1.4013e-044 
